# .PCD v0.7 - Point Cloud Data file format
VERSION 0.7
FIELDS x y z intensity distance
SIZE 4 4 4 4 4
TYPE F F F F F
COUNT 1 1 1 1 1
WIDTH 1055
HEIGHT 1
VIEWPOINT 0 0 0 1 0 0 0
POINTS 1055
DATA ascii
-0.22195435 0.15865307 0.062972009 34 0.28
-0.18863331 0.13478145 0.062059924 52 0.23999999
-0.19186194 0.13847703 -0.063546129 33 0.245
-0.18168528 0.13118409 -0.051780201 52 0.23
-0.23074737 0.16667506 -0.055453349 26 0.28999999
-0.22815031 0.1648646 -0.044632953 60 0.285
-0.20913425 0.15118334 -0.031724766 49 0.25999999
-0.20179817 0.14593799 -0.021899775 40 0.25
-0.21035671 0.15218784 -0.013744655 42 0.25999999
-0.19843931 0.14362289 -0.0043938407 57 0.245
-0.20227097 0.14686139 0.0042649414 44 0.25
-0.22630097 0.16424353 0.014557926 64 0.28
-0.22175248 0.16087857 0.023852117 70 0.27500001
-0.20891236 0.15150312 0.031661257 72 0.25999999
-0.21591499 0.15651932 0.042218689 31 0.27000001
-0.20668525 0.14976914 0.049501646 52 0.25999999
-0.22095312 0.16004449 0.062972009 28 0.28
-0.18778273 0.13596401 0.062059924 50 0.23999999
-0.19577749 0.14130309 -0.064842992 30 0.25
-0.18168528 0.13118409 -0.051780201 52 0.23
-0.23472577 0.16954878 -0.056409441 25 0.29499999
-0.22414768 0.16197224 -0.043849919 58 0.28
-0.21315607 0.15409072 -0.032334857 48 0.26499999
-0.20179817 0.14593799 -0.021899775 40 0.25
-0.21440203 0.15511453 -0.014008976 42 0.26499999
-0.19843931 0.14362289 -0.0043938407 56 0.245
-0.20227097 0.14686139 0.0042649414 37 0.25
-0.22630097 0.16424353 0.014557926 63 0.28
-0.22578435 0.16380362 0.024285793 57 0.28
-0.20891236 0.15150312 0.031661257 71 0.25999999
-0.21591499 0.15651932 0.042218689 30 0.27000001
-0.20668525 0.14976914 0.049501646 38 0.25999999
-0.22095312 0.16004449 0.062972009 33 0.28
-0.18778273 0.13596401 0.062059924 49 0.23999999
-0.19488579 0.1425304 -0.064842992 30 0.25
-0.18085745 0.13232306 -0.051780201 44 0.23
-0.23365584 0.17102024 -0.056409441 24 0.29499999
-0.22312556 0.16337739 -0.043849919 57 0.28
-0.21218368 0.15542696 -0.032334857 48 0.26499999
-0.20087723 0.14720304 -0.021899775 39 0.25
-0.21342319 0.15645859 -0.014008976 41 0.26499999
-0.20156428 0.14782333 -0.0044835107 43 0.25
-0.20134422 0.14812939 0.0042649414 36 0.25
-0.22526453 0.16566218 0.014557926 62 0.28
-0.2247507 0.16521902 0.024285793 56 0.28
-0.20395716 0.14987405 0.031052388 71 0.255
-0.2149273 0.15787286 0.042218689 29 0.27000001
-0.20574014 0.15106483 0.049501646 37 0.25999999
-0.21994318 0.16142961 0.062972009 32 0.28
-0.18692476 0.13714118 0.062059924 46 0.23999999
-0.1987835 0.145381 -0.066139847 29 0.255
-0.18085745 0.13232306 -0.051780201 42 0.23
-0.23365584 0.17102024 -0.056409441 23 0.29499999
-0.22312556 0.16337739 -0.043849919 56 0.28
-0.21218368 0.15542696 -0.032334857 47 0.26499999
-0.20087723 0.14720304 -0.021899775 32 0.25
-0.21342319 0.15645859 -0.014008976 40 0.26499999
-0.20156428 0.14782333 -0.0044835107 51 0.25
-0.2053711 0.15109198 0.0043502403 35 0.255
-0.22526453 0.16566218 0.014557926 60 0.28
-0.2247507 0.16521902 0.024285793 55 0.28
-0.20395716 0.14987405 0.031052388 69 0.255
-0.2149273 0.15787286 0.042218689 28 0.27000001
-0.20574014 0.15106483 0.049501646 36 0.25999999
-0.22387074 0.16431229 0.06409651 32 0.285
-0.18692476 0.13714118 0.062059924 44 0.23999999
-0.19786614 0.14662713 -0.066139847 25 0.255
-0.18002248 0.1334568 -0.051780201 40 0.23
-0.23257668 0.17248496 -0.056409441 26 0.29499999
-0.22209463 0.16477609 -0.043849919 55 0.28
-0.21120293 0.15675707 -0.032334857 44 0.26499999
-0.19994837 0.14846228 -0.021899775 37 0.25
-0.21243593 0.15779646 -0.014008976 39 0.26499999
-0.2006315 0.14908688 -0.0044835107 49 0.25
-0.20441772 0.15237936 0.0043502403 34 0.255
-0.2242192 0.16707428 0.014557926 58 0.28
-0.22770295 0.16960341 0.024719467 54 0.285
-0.20301145 0.15115258 0.031052388 69 0.255
-0.21393111 0.15922016 0.042218689 27 0.27000001
-0.20478691 0.15235454 0.049501646 43 0.25999999
-0.22283392 0.16571566 0.06409651 25 0.285
-0.18605939 0.13831295 0.062059924 43 0.23999999
-0.19786614 0.14662713 -0.066139847 24 0.255
-0.18393601 0.13635804 -0.052905858 36 0.235
-0.23257668 0.17248496 -0.056409441 25 0.29499999
-0.22209463 0.16477609 -0.043849919 54 0.28
-0.21120293 0.15675707 -0.032334857 43 0.26499999
-0.19994837 0.14846228 -0.021899775 31 0.25
-0.21243593 0.15779646 -0.014008976 38 0.26499999
-0.2006315 0.14908688 -0.0044835107 48 0.25
-0.20441772 0.15237936 0.0043502403 39 0.255
-0.2242192 0.16707428 0.014557926 57 0.28
-0.22770295 0.16960341 0.024719467 52 0.285
-0.20699206 0.15411635 0.031661257 68 0.25999999
-0.21393111 0.15922016 0.042218689 27 0.27000001
-0.20478691 0.15235454 0.049501646 41 0.25999999
-0.22283392 0.16571566 0.06409651 24 0.285
-0.18605939 0.13831295 0.062059924 42 0.23999999
-0.19694094 0.14786744 -0.066139847 22 0.255
-0.18307562 0.13751104 -0.052905858 35 0.235
-0.23148835 0.17394286 -0.056409441 25 0.29499999
-0.22105493 0.16616829 -0.043849919 52 0.28
-0.21021383 0.158081 -0.032334857 41 0.26499999
-0.19901161 0.14971565 -0.021899775 35 0.25
-0.21144028 0.15912811 -0.014008976 37 0.26499999
-0.1996908 0.15034454 -0.0044835107 47 0.25
-0.20345625 0.15366074 0.0043502403 33 0.255
-0.22316502 0.16847979 0.014557926 56 0.28
-0.2266328 0.17103074 0.024719467 51 0.285
-0.20601964 0.15541387 0.031661257 60 0.25999999
-0.21292649 0.16056119 0.042218689 26 0.27000001
-0.20382561 0.15363824 0.049501646 40 0.25999999
-0.22178832 0.16711248 0.06409651 24 0.285
-0.18518667 0.13947926 0.062059924 41 0.23999999
-0.19694094 0.14786744 -0.066139847 21 0.255
-0.18307562 0.13751104 -0.052905858 34 0.235
-0.23148835 0.17394286 -0.056409441 20 0.29499999
-0.22105493 0.16616829 -0.043849919 50 0.28
-0.21021383 0.158081 -0.032334857 40 0.26499999
-0.19503139 0.14672135 -0.021461779 28 0.245
-0.21144028 0.15912811 -0.014008976 36 0.26499999
-0.1996908 0.15034454 -0.0044835107 46 0.25
-0.19946693 0.15064779 0.0042649414 29 0.25
-0.22316502 0.16847979 0.014557926 55 0.28
-0.2266328 0.17103074 0.024719467 49 0.285
-0.20601964 0.15541387 0.031661257 57 0.25999999
-0.21292649 0.16056119 0.042218689 25 0.27000001
-0.20382561 0.15363824 0.049501646 39 0.25999999
-0.21789728 0.16418068 0.062972009 23 0.28
-0.18518667 0.13947926 0.062059924 39 0.23999999
-0.19985129 0.15202551 -0.06743671 23 0.25999999
-0.18608478 0.1416088 -0.054031517 33 0.23999999
-0.22648594 0.17242113 -0.055453349 18 0.28999999
-0.22000651 0.16755393 -0.043849919 41 0.28
-0.20921643 0.15939867 -0.032334857 38 0.26499999
-0.19410565 0.14794385 -0.021461779 28 0.245
-0.21043628 0.16045348 -0.014008976 35 0.26499999
-0.19874223 0.15159625 -0.0044835107 44 0.25
-0.19851644 0.1518981 0.0042649414 28 0.25
-0.22210205 0.16987863 0.014557926 54 0.28
-0.22555372 0.17245135 0.024719467 46 0.285
-0.20503908 0.15670526 0.031661257 53 0.25999999
-0.20798913 0.15889779 0.041436862 23 0.26499999
-0.20285626 0.15491587 0.049501646 31 0.25999999
-0.21686141 0.16554652 0.062972009 22 0.28
-0.18430665 0.14064007 0.062059924 38 0.23999999
-0.19985129 0.15202551 -0.06743671 22 0.25999999
-0.18608478 0.1416088 -0.054031517 32 0.23999999
-0.22648594 0.17242113 -0.055453349 18 0.28999999
-0.21607782 0.1645619 -0.043066885 45 0.27500001
-0.21316391 0.16240621 -0.032944947 37 0.27000001
-0.19410565 0.14794385 -0.021461779 26 0.245
-0.21440677 0.16348091 -0.014273295 34 0.27000001
-0.19874223 0.15159625 -0.0044835107 35 0.25
-0.19851644 0.1518981 0.0042649414 25 0.25
-0.22210205 0.16987863 0.014557926 52 0.28
-0.22159664 0.16942587 0.024285793 44 0.28
-0.20503908 0.15670526 0.031661257 50 0.25999999
-0.20798913 0.15889779 0.041436862 21 0.26499999
-0.20285626 0.15491587 0.049501646 29 0.25999999
-0.21686141 0.16554652 0.062972009 20 0.28
-0.18430665 0.14064007 0.062059924 36 0.23999999
-0.20271699 0.15622586 -0.068733573 21 0.26499999
-0.18519135 0.14277519 -0.054031517 30 0.23999999
-0.22539812 0.17384078 -0.055453349 17 0.28999999
-0.2150396 0.16591629 -0.043066885 42 0.27500001
-0.21213929 0.16374233 -0.032944947 35 0.27000001
-0.19711457 0.15220462 -0.021899775 24 0.25
-0.21337537 0.16482483 -0.014273295 34 0.27000001
-0.19778581 0.15284199 -0.0044835107 33 0.25
-0.20150928 0.15620525 0.0043502403 21 0.255
-0.22103028 0.17127079 0.014557926 46 0.28
-0.22052774 0.17081486 0.024285793 43 0.28
-0.20405044 0.15799046 0.031661257 46 0.25999999
-0.20698665 0.16020148 0.041436862 19 0.26499999
-0.20187889 0.15618739 0.049501646 28 0.25999999
-0.21581697 0.16690584 0.062972009 18 0.28
-0.18341935 0.14179531 0.062059924 33 0.23999999
-0.20271699 0.15622586 -0.068733573 17 0.26499999
-0.18519135 0.14277519 -0.054031517 29 0.23999999
-0.22539812 0.17384078 -0.055453349 16 0.28999999
-0.21112978 0.16289964 -0.042283848 40 0.27000001
-0.21213929 0.16374233 -0.032944947 33 0.27000001
-0.19711457 0.15220462 -0.021899775 22 0.25
-0.21337537 0.16482483 -0.014273295 32 0.27000001
-0.19778581 0.15284199 -0.0044835107 32 0.25
-0.20150928 0.15620525 0.0043502403 22 0.255
-0.22103028 0.17127079 0.014557926 44 0.28
-0.22052774 0.17081486 0.024285793 42 0.28
-0.20405044 0.15799046 0.031661257 42 0.25999999
-0.20308124 0.1571788 0.040655036 18 0.25999999
-0.20187889 0.15618739 0.049501646 26 0.25999999
-0.2119631 0.16392536 0.061847508 17 0.27500001
-0.18341935 0.14179531 0.062059924 29 0.23999999
-0.20553765 0.1604681 -0.070030428 17 0.27000001
-0.18429062 0.14393596 -0.054031517 27 0.23999999
-0.2243014 0.17525356 -0.055453349 16 0.28999999
-0.2101021 0.16422299 -0.042283848 38 0.27000001
-0.21110629 0.16507201 -0.032944947 27 0.27000001
-0.19615436 0.15344012 -0.021899775 20 0.25
-0.21233554 0.16616224 -0.014273295 28 0.27000001
-0.19682157 0.15408169 -0.0044835107 29 0.25
-0.20445569 0.1605559 0.0044355392 21 0.25999999
-0.2199498 0.17265616 0.014557926 40 0.28
-0.21945013 0.17219709 0.024285793 39 0.28
-0.20305373 0.15926941 0.031661257 39 0.25999999
-0.20208965 0.15845169 0.040655036 17 0.25999999
-0.20089357 0.15745273 0.049501646 24 0.25999999
-0.21092896 0.16525392 0.061847508 17 0.27500001
-0.1787222 0.13996693 0.06076701 28 0.235
-0.20553765 0.1604681 -0.070030428 16 0.27000001
-0.18429062 0.14393596 -0.054031517 21 0.23999999
-0.2243014 0.17525356 -0.055453349 15 0.28999999
-0.2101021 0.16422299 -0.042283848 32 0.27000001
-0.21110629 0.16507201 -0.032944947 25 0.27000001
-0.19223127 0.15037131 -0.021461779 18 0.245
-0.21233554 0.16616224 -0.014273295 26 0.27000001
-0.19682157 0.15408169 -0.0044835107 27 0.25
-0.20445569 0.1605559 0.0044355392 18 0.25999999
-0.2199498 0.17265616 0.014557926 33 0.28
-0.21945013 0.17219709 0.024285793 37 0.28
-0.20305373 0.15926941 0.031661257 36 0.25999999
-0.19820331 0.15540455 0.039873205 16 0.255
-0.20089357 0.15745273 0.049501646 22 0.25999999
-0.20709388 0.16224931 0.060723007 14 0.27000001
-0.1787222 0.13996693 0.06076701 19 0.235
-0.20831285 0.16475184 -0.071327291 15 0.27500001
-0.18338262 0.14509104 -0.054031517 19 0.23999999
-0.22319584 0.17665941 -0.055453349 14 0.28999999
-0.20906611 0.16553985 -0.042283848 29 0.27000001
-0.20617485 0.16331376 -0.032334857 22 0.26499999
-0.19128267 0.15157616 -0.021461779 16 0.245
-0.21128733 0.16749309 -0.014273295 22 0.27000001
-0.19584957 0.15531529 -0.0044835107 24 0.25
-0.20344286 0.16183735 0.0044355392 17 0.25999999
-0.21886064 0.17403473 0.014557926 29 0.28
-0.21836387 0.17357253 0.024285793 28 0.28
-0.20204902 0.16054209 0.031661257 33 0.25999999
-0.19722298 0.15664682 0.039873205 14 0.255
-0.1999003 0.15871188 0.049501646 17 0.25999999
-0.20225424 0.16051866 0.059598509 13 0.26499999
-0.17783925 0.14108711 0.06076701 17 0.235
-0.21210036 0.16774733 -0.072624147 12 0.28
-0.18720308 0.14811377 -0.055157173 17 0.245
-0.22319584 0.17665941 -0.055453349 13 0.28999999
-0.20906611 0.16553985 -0.042283848 20 0.27000001
-0.20617485 0.16331376 -0.032334857 19 0.26499999
-0.18737894 0.14848277 -0.021023784 16 0.23999999
-0.21128733 0.16749309 -0.014273295 16 0.27000001
-0.19193259 0.152209 -0.0043938407 17 0.245
-0.1995305 0.1587251 0.0043502403 14 0.255
-0.21886064 0.17403473 0.014557926 25 0.28
-0.21836387 0.17357253 0.024285793 24 0.28
-0.20204902 0.16054209 0.031661257 25 0.25999999
-0.19335586 0.15357532 0.039091378 12 0.25
-0.19605605 0.15565972 0.048549693 15 0.255
-0.19843812 0.15749 0.058474008 11 0.25999999
-0.17783925 0.14108711 0.06076701 11 0.235
-0.2148108 0.17209591 -0.07392101 10 0.285
-0.18626876 0.14928707 -0.055157173 14 0.245
-0.22208145 0.1780583 -0.055453349 12 0.28999999
-0.21187413 0.16993998 -0.043066885 17 0.27500001
-0.20127401 0.1615002 -0.031724766 14 0.25999999
-0.18255809 0.14653932 -0.020585788 15 0.235
-0.21023078 0.16881734 -0.014273295 14 0.27000001
-0.19097245 0.15341192 -0.0043938407 15 0.245
-0.19463654 0.15683886 0.0042649414 11 0.25
-0.21776283 0.17540643 0.014557926 20 0.28
-0.22114877 0.17806506 0.024719467 14 0.285
-0.20103632 0.16180842 0.031661257 14 0.25999999
-0.1923871 0.15478717 0.039091378 10 0.25
-0.19507416 0.1568885 0.048549693 11 0.255
-0.19744468 0.15873371 0.058474008 10 0.25999999
-0.17318438 0.13917615 0.059474096 7 0.23
-0.21857941 0.17511514 -0.075217865 8 0.28999999
-0.18626876 0.14928707 -0.055157173 10 0.245
-0.22208145 0.1780583 -0.055453349 10 0.28999999
-0.21187413 0.16993998 -0.043066885 14 0.27500001
-0.20127401 0.1615002 -0.031724766 11 0.25999999
-0.17478965 0.1403036 -0.019709798 13 0.22499999
-0.21023078 0.16881734 -0.014273295 11 0.27000001
-0.18707505 0.15028107 -0.0043041701 14 0.23999999
-0.18685107 0.15056531 0.0040943441 9 0.23999999
-0.21776283 0.17540643 0.014557926 13 0.28
-0.22114877 0.17806506 0.024719467 4 0.285
-0.2049024 0.16492012 0.03227013 6 0.26499999
-0.18853936 0.15169142 0.038309552 8 0.245
-0.19507416 0.1568885 0.048549693 7 0.255
-0.19364767 0.15568113 0.057349507 7 0.255
-0.17318438 0.13917615 0.059474096 2 0.23
-0.2212244 0.17952789 -0.076514728 5 0.29499999
-0.18910928 0.15352498 -0.056282829 8 0.25
-0.22095831 0.17945015 -0.055453349 8 0.28999999
-0.21463495 0.17438182 -0.043849919 9 0.28
-0.2002553 0.16276164 -0.031724766 7 0.25999999
-0.17004012 0.13825685 -0.0192718 12 0.22
-0.20529248 0.16698427 -0.014008976 9 0.26499999
-0.18612711 0.15145352 -0.0043041701 11 0.23999999
-0.18202841 0.14857517 0.0040090452 7 0.235
-0.21665643 0.17677121 0.014557926 7 0.28
-0.2238857 0.18259932 0.025153141 2 0.28999999
-0.20386215 0.16620429 0.03227013 2 0.26499999
-0.18758254 0.15287305 0.038309552 5 0.245
-0.19408455 0.15811108 0.048549693 2 0.255
-0.19266567 0.15689479 0.057349507 4 0.255
-0.17230651 0.14026155 0.059474096 1 0.23
-0.22497396 0.18257074 -0.077811591 2 0.30000001
-0.18910928 0.15352498 -0.056282829 4 0.25
-0.22095831 0.17945015 -0.055453349 6 0.28999999
-0.21846773 0.17749579 -0.044632953 5 0.285
-0.2002553 0.16276164 -0.031724766 3 0.25999999
-0.16231102 0.13197245 -0.018395809 10 0.20999999
-0.20529248 0.16698427 -0.014008976 6 0.26499999
-0.18224947 0.14829825 -0.0042145001 8 0.235
-0.17815547 0.14541399 0.0039237463 4 0.23
-0.21665643 0.17677121 0.014557926 1 0.28
-0.2238857 0.18259932 0.025153141 2 0.28999999
-0.2077086 0.16934022 0.032878999 2 0.27000001
-0.18758254 0.15287305 0.038309552 2 0.245
-0.19408455 0.15811108 0.048549693 1 0.255
-0.19266567 0.15689479 0.057349507 1 0.255
-0.17230651 0.14026155 0.059474096 1 0.23
-0.23501353 0.19317971 -0.081702165 1 0.315
-0.19190376 0.15780436 -0.057408486 1 0.255
-0.21982643 0.18083492 -0.055453349 3 0.28999999
-0.22116131 0.18200293 -0.045415986 1 0.28999999
-0.20306002 0.16717082 -0.032334857 1 0.26499999
-0.15763389 0.12982325 -0.017957814 7 0.205
-0.20038567 0.16509594 -0.013744655 3 0.25999999
-0.1813141 0.14944042 -0.0042145001 4 0.235
-0.1772383 0.14653051 0.0039237463 1 0.23
-0.21554147 0.178129 0.014557926 1 0.28
-0.22273399 0.18400243 0.025153141 2 0.28999999
-0.20664051 0.17064194 0.032878999 2 0.27000001
-0.18661831 0.15404864 0.038309552 1 0.245
-0.19308728 0.15932742 0.048549693 1 0.255
-0.19543444 0.16120227 0.058474008 1 0.25999999
-0.17142181 0.1413414 0.059474096 1 0.23
-0.2387439 0.19624606 -0.082999028 1 0.31999999
-0.19566657 0.16089857 -0.058534142 1 0.25999999
-0.21982643 0.18083492 -0.055453349 1 0.28999999
-0.22116131 0.18200293 -0.045415986 1 0.28999999
-0.20306002 0.16717082 -0.032334857 1 0.26499999
-0.16147861 0.13298967 -0.018395809 4 0.20999999
-0.20038567 0.16509594 -0.013744655 1 0.25999999
-0.1813141 0.14944042 -0.0042145001 1 0.235
-0.1772383 0.14653051 0.0039237463 1 0.23
-0.21939042 0.18130988 0.014817889 1 0.285
-0.21889374 0.18082997 0.024719467 2 0.285
-0.20664051 0.17064194 0.032878999 2 0.27000001
-0.19042686 0.15719248 0.039091378 1 0.25
-0.19308728 0.15932742 0.048549693 1 0.255
-0.19543444 0.16120227 0.058474008 1 0.25999999
-0.17142181 0.1413414 0.059474096 1 0.23
-0.24121718 0.20083196 -0.084295884 1 0.32499999
-0.19839506 0.16524257 -0.059659798 1 0.26499999
-0.22245632 0.18535414 -0.056409441 1 0.29499999
-0.22380672 0.18655081 -0.04619902 1 0.29499999
-0.20581707 0.17162156 -0.032944947 1 0.27000001
-0.16446459 0.13719216 -0.018833805 1 0.215
-0.19551085 0.16315265 -0.013480335 1 0.255
-0.18037155 0.1505767 -0.0042145001 1 0.235
-0.17631413 0.14764123 0.0039237463 1 0.23
-0.21824691 0.18268475 0.014817889 1 0.285
-0.21775325 0.18220174 0.024719467 1 0.285
-0.20556426 0.17193693 0.032878999 2 0.27000001
-0.18943544 0.15838586 0.039091378 1 0.25
-0.19208241 0.16053747 0.048549693 1 0.255
-0.19067891 0.15930344 0.057349507 1 0.255
-0.16682318 0.13931969 0.058181178 1 0.22499999
-0.24121718 0.20083196 -0.084295884 1 0.32499999
-0.19839506 0.16524257 -0.059659798 1 0.26499999
-0.22245632 0.18535414 -0.056409441 1 0.29499999
-0.22380672 0.18655081 -0.04619902 1 0.29499999
-0.20581707 0.17162156 -0.032944947 1 0.27000001
-0.1721141 0.14357318 -0.019709798 0 0.22499999
-0.19551085 0.16315265 -0.013480335 1 0.255
-0.18037155 0.1505767 -0.0042145001 1 0.235
-0.17631413 0.14764123 0.0039237463 1 0.23
-0.21824691 0.18268475 0.014817889 1 0.285
-0.21775325 0.18220174 0.024719467 1 0.285
-0.20556426 0.17193693 0.032878999 1 0.27000001
-0.18943544 0.15838586 0.039091378 0 0.25
-0.19584872 0.16368526 0.049501646 1 0.25999999
-0.19067891 0.15930344 0.057349507 1 0.255
-0.16682318 0.13931969 0.058181178 1 0.22499999
-0.24364211 0.20545658 -0.085592747 1 0.33000001
-0.20107654 0.1696271 -0.060785454 1 0.27000001
-0.22503796 0.18991344 -0.057365533 1 0.30000001
-0.22263017 0.18795334 -0.04619902 1 0.29499999
-0.2047347 0.17291135 -0.032944947 1 0.27000001
-0.17501324 0.14786625 -0.020147793 0 0.23
-0.19448188 0.16437785 -0.013480335 1 0.255
-0.1794219 0.15170702 -0.0042145001 1 0.235
-0.175383 0.14874612 0.0039237463 1 0.23
-0.21709476 0.18405242 0.014817889 1 0.285
-0.21660414 0.18356632 0.024719467 1 0.285
-0.2044799 0.17322512 0.032878999 1 0.27000001
-0.19220527 0.16276444 0.039873205 0 0.255
-0.1948164 0.16491258 0.049501646 1 0.25999999
-0.18595512 0.15735133 0.056225009 1 0.25
-0.16594453 0.14036511 0.058181178 1 0.22499999
-0.24364211 0.20545658 -0.085592747 1 0.33000001
-0.20107654 0.1696271 -0.060785454 1 0.27000001
-0.22503796 0.18991344 -0.057365533 1 0.30000001
-0.21885678 0.18476768 -0.045415986 1 0.28999999
-0.2047347 0.17291135 -0.032944947 1 0.27000001
-0.17501324 0.14786625 -0.020147793 0 0.23
-0.19448188 0.16437785 -0.013480335 1 0.255
-0.1794219 0.15170702 -0.0042145001 1 0.235
-0.17919567 0.15197973 0.0040090452 1 0.235
-0.21709476 0.18405242 0.014817889 1 0.285
-0.22040421 0.18678679 0.025153141 1 0.28999999
-0.2044799 0.17322512 0.032878999 1 0.27000001
-0.19597399 0.1659559 0.040655036 0 0.25999999
-0.1948164 0.16491258 0.049501646 1 0.25999999
-0.18595512 0.15735133 0.056225009 1 0.25
-0.16594453 0.14036511 0.058181178 1 0.22499999
-0.24234638 0.20698336 -0.085592747 1 0.33000001
-0.20000678 0.17088714 -0.060785454 1 0.27000001
-0.22384027 0.19132364 -0.057365533 0 0.30000001
-0.21769154 0.18613914 -0.045415986 1 0.28999999
-0.20364423 0.17419432 -0.032944947 1 0.27000001
-0.1778651 0.15220129 -0.020585788 0 0.235
-0.19344522 0.16559657 -0.013480335 1 0.255
-0.17846516 0.15283136 -0.0042145001 1 0.235
-0.17823723 0.15310265 0.0040090452 1 0.235
-0.21593404 0.18541284 0.014817889 1 0.285
-0.21922626 0.18816793 0.025153141 1 0.28999999
-0.2071539 0.17773809 0.033487868 1 0.27500001
-0.19867601 0.17039904 0.041436862 0 0.26499999
-0.19750285 0.16932826 0.0504536 1 0.26499999
-0.18126354 0.15534627 0.055100508 1 0.245
-0.16505931 0.141405 0.058181178 1 0.22499999
-0.24234638 0.20698336 -0.085592747 1 0.33000001
-0.20371062 0.17405172 -0.06191111 1 0.27500001
-0.22384027 0.19132364 -0.057365533 0 0.30000001
-0.21769154 0.18613914 -0.045415986 1 0.28999999
-0.20364423 0.17419432 -0.032944947 1 0.27000001
-0.1778651 0.15220129 -0.020585788 0 0.235
-0.19344522 0.16559657 -0.013480335 1 0.255
-0.17846516 0.15283136 -0.0042145001 1 0.235
-0.1820295 0.15636015 0.0040943441 0 0.23999999
-0.21972236 0.18866569 0.015077852 1 0.28999999
-0.22300602 0.1914122 0.025586817 1 0.29499999
-0.2071539 0.17773809 0.033487868 1 0.27500001
-0.19867601 0.17039904 0.041436862 0 0.26499999
-0.20122932 0.17252313 0.051405556 1 0.27000001
-0.18126354 0.15534627 0.055100508 1 0.245
-0.16505931 0.141405 0.058181178 1 0.22499999
-0.24104109 0.20850198 -0.085592747 1 0.33000001
-0.202613 0.17532822 -0.06191111 1 0.27500001
-0.21892317 0.18951418 -0.056409441 0 0.29499999
-0.22025077 0.19073607 -0.04619902 1 0.29499999
-0.20254572 0.17547041 -0.032944947 1 0.27000001
-0.18066922 0.15657789 -0.021023784 0 0.23999999
-0.1961735 0.1700795 -0.013744655 1 0.25999999
-0.17750138 0.15394966 -0.0042145001 1 0.235
-0.19235869 0.16734459 0.0043502403 0 0.255
-0.22230041 0.19331911 0.015337816 1 0.29499999
-0.22555825 0.19607756 0.026020491 1 0.30000001
-0.20977911 0.18229136 0.03409674 1 0.28
-0.21251476 0.18459825 0.044564173 0 0.285
-0.207554 0.18022053 0.053309467 1 0.28
-0.18764243 0.16286914 0.057349507 1 0.255
-0.17876026 0.15510057 0.063352838 1 0.245
-0.24104109 0.20850198 -0.085592747 1 0.33000001
-0.20629688 0.17851602 -0.06303677 1 0.28
-0.21892317 0.18951418 -0.056409441 0 0.29499999
-0.22025077 0.19073607 -0.04619902 1 0.29499999
-0.20254572 0.17547041 -0.032944947 1 0.27000001
-0.17690529 0.15331584 -0.020585788 0 0.235
-0.1961735 0.1700795 -0.013744655 1 0.25999999
-0.17372476 0.15067413 -0.00412483 1 0.23
-0.19613044 0.17062585 0.0044355392 0 0.25999999
-0.22606821 0.1965957 0.015597778 1 0.30000001
-0.22555825 0.19607756 0.026020491 1 0.30000001
-0.20977911 0.18229136 0.03409674 1 0.28
-0.21251476 0.18459825 0.044564173 0 0.285
-0.207554 0.18022053 0.053309467 1 0.28
-0.19500095 0.16925617 0.059598509 0 0.26499999
-0.19335294 0.16776183 0.068524502 1 0.26499999
-0.23972629 0.21001236 -0.085592747 1 0.33000001
-0.20517115 0.17980868 -0.06303677 1 0.28
-0.21772811 0.19088596 -0.056409441 0 0.29499999
-0.22276068 0.19537237 -0.046982054 1 0.30000001
-0.20143922 0.17673956 -0.032944947 1 0.27000001
-0.17593849 0.15442434 -0.020585788 0 0.235
-0.19885294 0.17460313 -0.014008976 1 0.26499999
-0.17277461 0.15176271 -0.00412483 1 0.23
-0.2025566 0.17846459 0.0046061371 0 0.27000001
-0.23606995 0.20791285 0.016377667 1 0.315
-0.22806051 0.20078242 0.026454167 1 0.30500001
-0.21235514 0.18688451 0.034705609 1 0.285
-0.22989024 0.2022395 0.04847331 0 0.31
-0.21747564 0.19124541 0.05616533 1 0.29499999
-0.19393364 0.17047805 0.059598509 0 0.26499999
-0.20317967 0.17853792 0.072403245 1 0.28
-0.23972629 0.21001236 -0.085592747 1 0.33000001
-0.20517115 0.17980868 -0.06303677 1 0.28
-0.21772811 0.19088596 -0.056409441 0 0.29499999
-0.22647336 0.19862859 -0.047765091 1 0.30500001
-0.20143922 0.17673956 -0.032944947 1 0.27000001
-0.17968185 0.15770996 -0.021023784 0 0.23999999
-0.19885294 0.17460313 -0.014008976 1 0.26499999
-0.18404253 0.16166027 -0.0043938407 1 0.245
-0.20630763 0.18176949 0.0046914355 0 0.27500001
-0.23606995 0.20791285 0.016377667 1 0.315
-0.23179922 0.20407394 0.026887842 1 0.31
-0.20862961 0.18360583 0.03409674 1 0.28
nan nan nan nan nan
-0.22853372 0.20096974 0.059021194 1 0.31
nan nan nan nan nan
nan nan nan nan nan
-0.23117772 0.20510492 -0.082999028 1 0.31999999
-0.20403734 0.18109426 -0.06303677 1 0.28
-0.21652444 0.19225021 -0.056409441 0 0.29499999
-0.23260516 0.20660657 -0.049331158 1 0.315
-0.22258306 0.19777972 -0.036605496 1 0.30000001
nan nan nan nan nan
-0.20894547 0.18580283 -0.014801936 1 0.28
-0.19049349 0.1694589 -0.0045731808 1 0.255
-0.22754274 0.20303258 0.0052032289 0 0.30500001
-0.22730628 0.20274465 0.015857741 1 0.30500001
-0.24166623 0.21547116 0.028188866 1 0.32499999
-0.23340584 0.20802718 0.03835883 1 0.315
-0.49041605 0.43692634 0.10398307 0 0.66500002
nan nan nan nan nan
nan nan nan nan nan
-0.5051347 0.4495275 0.18100812 1 0.69999999
-0.25285062 0.22433349 -0.090780184 1 0.34999999
-0.20768087 0.18432808 -0.064162426 1 0.285
-0.22386426 0.19876716 -0.058321629 0 0.30500001
-0.23998946 0.21316551 -0.050897226 1 0.32499999
-0.21887335 0.19448338 -0.035995405 1 0.29499999
nan nan nan nan nan
-0.20894547 0.18580283 -0.014801936 1 0.28
-0.21290448 0.18939523 -0.0051112021 1 0.285
-0.49984798 0.446006 0.011430044 0 0.67000002
-0.26829591 0.23930515 0.018717334 1 0.36000001
nan nan nan nan nan
nan nan nan nan nan
-0.51622742 0.45992246 0.10945586 1 0.69999999
-0.54617268 0.48641697 0.14184125 1 0.745
-0.5349099 0.47620565 0.16530152 1 0.73500001
-0.52678335 0.46879297 0.1887656 1 0.73000002
-0.24425222 0.21946298 -0.088186465 1 0.34
-0.21014175 0.18888599 -0.065288082 1 0.28999999
-0.25180584 0.22642159 -0.065970361 0 0.345
-0.25700271 0.2311822 -0.054812398 1 0.34999999
nan nan nan nan nan
-0.33316103 0.29991636 -0.039419595 0 0.44999999
nan nan nan nan nan
-0.50884753 0.45841932 -0.012284819 1 0.685
-0.53041881 0.47930378 0.012197733 1 0.71499997
nan nan nan nan nan
-0.48800933 0.44064713 0.057245083 1 0.66000003
-0.50839674 0.45888197 0.084024109 1 0.69
-0.50232762 0.45323211 0.10711038 1 0.685
-0.54310566 0.48983905 0.14184125 3 0.745
-0.53190726 0.47955716 0.16530152 2 0.73500001
-0.53100318 0.47856063 0.19135143 9 0.74000001
nan nan nan nan nan
-0.217388 0.1953993 -0.067539394 1 0.30000001
-0.27005264 0.24282895 -0.070750825 0 0.37
-0.27168858 0.24439262 -0.057944536 1 0.37
nan nan nan nan nan
-0.46642545 0.41988292 -0.05518743 0 0.63
nan nan nan nan nan
-0.52370441 0.47180381 -0.0126435 1 0.70499998
-0.53041881 0.47930378 0.012197733 3 0.71499997
-0.51504719 0.4652372 0.036134854 1 0.69499999
-0.52128267 0.47069126 0.061148155 1 0.70499998
-0.53418499 0.4821586 0.088286199 1 0.72500002
-0.53166062 0.47969824 0.113365 25 0.72500002
-0.55404067 0.49970156 0.14469711 38 0.75999999
-0.56085461 0.50565553 0.17429753 26 0.77499998
-0.53459102 0.48179412 0.19264434 35 0.745
nan nan nan nan nan
-0.2377716 0.21643744 -0.07429333 1 0.33000001
-0.29029357 0.26434696 -0.076487377 0 0.40000001
-0.28475022 0.25939727 -0.061076671 1 0.38999999
nan nan nan nan nan
-0.47482038 0.43287203 -0.056501418 1 0.64499998
-0.52755296 0.48112804 -0.037797801 1 0.71499997
-0.52442276 0.47845441 -0.012733171 6 0.70999998
-0.53846103 0.49275208 0.01245363 16 0.73000002
-0.526851 0.4819451 0.037174705 1 0.71499997
-0.52934295 0.48404145 0.06244918 1 0.72000003
-0.54579729 0.49889871 0.090721682 2 0.745
-0.52499032 0.47969803 0.11258317 102 0.72000003
-0.54726577 0.49986246 0.14374517 63 0.755
-0.56126428 0.51245439 0.17542203 103 0.77999997
-0.53868824 0.49165553 0.19523019 40 0.755
nan nan nan nan nan
-0.23416899 0.21315809 -0.073167674 1 0.32499999
-0.2866649 0.26104262 -0.075531289 0 0.39500001
-0.29205152 0.26604849 -0.062642738 1 0.40000001
nan nan nan nan nan
-0.47113961 0.42951643 -0.056063421 2 0.63999999
-0.53124213 0.48449257 -0.038062122 1 0.72000003
-0.54288834 0.4953014 -0.013181522 28 0.73500001
-0.54583722 0.49950209 0.012624227 15 0.74000001
-0.54158807 0.49542609 0.038214557 1 0.73500001
-0.52934295 0.48404145 0.06244918 2 0.72000003
-0.55678648 0.50894368 0.092548288 2 0.75999999
-0.52134454 0.47636679 0.11180134 69 0.71499997
-0.55089009 0.50317281 0.14469711 58 0.75999999
-0.56126428 0.51245439 0.17542203 50 0.77999997
-0.53155327 0.48514354 0.19264434 36 0.745
nan nan nan nan nan
nan nan nan nan nan
-0.2850191 0.26283863 -0.075531289 0 0.39500001
-0.28674445 0.26452976 -0.061859705 1 0.39500001
nan nan nan nan nan
-0.46477196 0.42908955 -0.055625428 6 0.63499999
-0.53919142 0.49798381 -0.038855083 8 0.73500001
-0.5397656 0.49870268 -0.013181522 29 0.73500001
-0.54268801 0.50292182 0.012624227 15 0.74000001
-0.54212755 0.50221252 0.038474519 2 0.74000001
-0.52994603 0.49074227 0.062882856 2 0.72500002
-0.55357772 0.51243198 0.092548288 6 0.75999999
-0.51471645 0.47627899 0.11101951 17 0.70999998
-0.54771769 0.50662422 0.14469711 38 0.75999999
nan nan nan nan nan
-0.51785374 0.47863874 0.1887656 25 0.73000002
nan nan nan nan nan
nan nan nan nan nan
-0.27780342 0.25618449 -0.073619105 0 0.38499999
-0.28311479 0.26118127 -0.061076671 1 0.38999999
nan nan nan nan nan
-0.45379311 0.41895357 -0.054311439 8 0.62
-0.54285938 0.50137144 -0.039119404 17 0.74000001
-0.5397656 0.49870268 -0.013181522 31 0.73500001
-0.53902119 0.4995237 0.012538929 15 0.73500001
-0.54212755 0.50221252 0.038474519 5 0.74000001
-0.52994603 0.49074227 0.062882856 2 0.72500002
-0.53900987 0.49894691 0.090112813 8 0.74000001
-0.51109165 0.47292492 0.11023769 16 0.70499998
-0.54051089 0.4999581 0.14279321 19 0.75
-0.53657055 0.49612576 0.16867502 9 0.75
-0.51430678 0.47536039 0.18747269 20 0.72500002
nan nan nan nan nan
nan nan nan nan nan
-0.27260143 0.25457522 -0.072663009 0 0.38
-0.2778596 0.25958377 -0.060293637 1 0.38499999
nan nan nan nan nan
-0.44387516 0.41499338 -0.053435449 8 0.61000001
-0.53969848 0.50477242 -0.039119404 17 0.74000001
-0.53297102 0.4986687 -0.013091851 25 0.73000002
-0.52129042 0.48921621 0.012197733 17 0.71499997
-0.53896141 0.50560886 0.038474519 7 0.74000001
-0.52685213 0.4940623 0.062882856 4 0.72500002
-0.52500218 0.49214152 0.088286199 8 0.72500002
-0.50811011 0.47612685 0.11023769 15 0.70499998
-0.53377652 0.4999887 0.14184125 17 0.745
-0.52633017 0.4928275 0.16642602 12 0.74000001
-0.50073105 0.46868077 0.18359394 15 0.70999998
nan nan nan nan nan
nan nan nan nan nan
-0.26542771 0.24787588 -0.070750825 0 0.37
-0.27425101 0.25621253 -0.059510604 1 0.38
nan nan nan nan nan
-0.43659851 0.40819019 -0.052559458 9 0.60000002
-0.53605187 0.50136179 -0.038855083 19 0.73500001
-0.52932054 0.49525318 -0.013002181 27 0.72500002
-0.51764506 0.48579511 0.012112434 17 0.70999998
-0.53531975 0.50219262 0.038214557 10 0.73500001
-0.52321869 0.49065498 0.06244918 14 0.72000003
-0.50689864 0.47517112 0.085241847 9 0.69999999
-0.50811011 0.47612685 0.11023769 17 0.70499998
-0.52661169 0.49327746 0.13993734 17 0.73500001
-0.53699899 0.50281727 0.16979952 38 0.755
-0.50073105 0.46868077 0.18359394 14 0.70999998
nan nan nan nan nan
nan nan nan nan nan
-0.2602993 0.24616657 -0.069794737 0 0.36500001
-0.26904848 0.25453681 -0.05872757 1 0.375
nan nan nan nan nan
-0.4304083 0.40750098 -0.052121464 8 0.59500003
-0.52564096 0.49785307 -0.038326442 22 0.72500002
-0.51894045 0.49169236 -0.01282284 33 0.71499997
-0.50371104 0.47870618 0.011856537 15 0.69499999
-0.53215384 0.50554615 0.038214557 13 0.73500001
-0.52012551 0.49393275 0.06244918 28 0.72000003
-0.51830029 0.49201369 0.08767733 21 0.72000003
-0.50510854 0.47930998 0.11023769 26 0.70499998
-0.51994073 0.49319842 0.1389854 22 0.73000002
-0.54089975 0.51288575 0.17204852 46 0.76499999
-0.50128186 0.47514033 0.18488686 18 0.71499997
nan nan nan nan nan
-0.24427029 0.23092064 -0.077670306 1 0.345
-0.25673354 0.24279442 -0.068838641 0 0.36000001
-0.26187384 0.24774916 -0.057161499 1 0.36500001
nan nan nan nan nan
-0.42317456 0.40065223 -0.05124547 7 0.58499998
-0.52201587 0.4944196 -0.038062122 29 0.72000003
-0.51531148 0.48825395 -0.012733171 37 0.70999998
-0.50371104 0.47870618 0.011856537 15 0.69499999
-0.52853376 0.50210708 0.037954595 16 0.73000002
-0.51290154 0.48707259 0.061581831 36 0.70999998
-0.52189964 0.49543047 0.088286199 38 0.72500002
-0.50510854 0.47930998 0.11023769 38 0.70499998
-0.51994073 0.49319842 0.1389854 26 0.73000002
-0.53382915 0.50618136 0.16979952 39 0.755
-0.50478733 0.47846299 0.18617977 42 0.72000003
nan nan nan nan nan
-0.22521931 0.21560661 -0.072042018 1 0.31999999
-0.25165847 0.24100824 -0.067882553 0 0.35499999
-0.25674611 0.24597338 -0.056378465 1 0.36000001
nan nan nan nan nan
-0.41705355 0.39985615 -0.050807476 6 0.57999998
-0.51529557 0.49423355 -0.037797801 38 0.71499997
-0.50501901 0.48455983 -0.01255383 54 0.69999999
-0.50069332 0.48186162 0.011856537 21 0.69499999
-0.52536851 0.505418 0.037954595 20 0.73000002
-0.50624073 0.48683289 0.061148155 53 0.70499998
-0.52593201 0.50557846 0.089503936 70 0.73500001
-0.50208694 0.48247418 0.11023769 46 0.70499998
-0.51683164 0.49645555 0.1389854 32 0.73000002
-0.52712405 0.50615114 0.16867502 26 0.75
-0.50525564 0.48496982 0.18747269 52 0.72500002
-0.25468218 0.24371998 -0.094670765 1 0.36500001
-0.23577647 0.22571316 -0.075418994 1 0.33500001
-0.24456951 0.23421928 -0.065970361 1 0.345
-0.25318021 0.24255708 -0.055595431 1 0.35499999
nan nan nan nan nan
-0.41345826 0.39640912 -0.050369479 6 0.57499999
-0.50808865 0.4873212 -0.03726916 55 0.70499998
-0.50141174 0.48109868 -0.01246416 58 0.69499999
-0.50069332 0.48186162 0.011856537 30 0.69499999
-0.51817167 0.49849448 0.037434667 24 0.72000003
-0.50265032 0.48338017 0.06071448 55 0.69999999
-0.52235425 0.50213915 0.088895068 83 0.73000002
-0.50564784 0.48589599 0.11101951 34 0.70999998
-0.51683164 0.49645555 0.1389854 36 0.73000002
-0.52009571 0.49940246 0.16642602 18 0.74000001
-0.4982866 0.47828057 0.18488686 56 0.71499997
-0.24274258 0.23523392 -0.090780184 1 0.34999999
-0.22036237 0.21362655 -0.070916362 1 0.315
-0.23956996 0.23233463 -0.065014273 1 0.34
-0.24810679 0.24070442 -0.054812398 1 0.34999999
nan nan nan nan nan
-0.41095939 0.39899909 -0.050369479 6 0.57499999
-0.50501668 0.49050397 -0.03726916 57 0.70499998
-0.49120808 0.47727215 -0.012284819 60 0.685
-0.49765584 0.48499805 0.011856537 30 0.69499999
-0.51502931 0.5017404 0.037434667 28 0.72000003
-0.49960327 0.48652884 0.06071448 57 0.69999999
-0.51207674 0.49848783 0.08767733 86 0.72000003
-0.50258493 0.48906344 0.11101951 35 0.70999998
-0.51370215 0.49969307 0.1389854 35 0.73000002
-0.51345474 0.49926409 0.16530152 16 0.73500001
-0.48834479 0.47466907 0.18230103 47 0.70499998
-0.24274258 0.23523392 -0.090780184 1 0.34999999
-0.20986891 0.20345385 -0.067539394 1 0.30000001
-0.23604687 0.22891794 -0.064058177 1 0.33500001
-0.24101803 0.23382714 -0.05324633 1 0.34
nan nan nan nan nan
-0.40738586 0.39552954 -0.049931485 8 0.56999999
-0.50143504 0.48702523 -0.03700484 66 0.69999999
-0.48762262 0.47378841 -0.012195149 64 0.68000001
-0.49407557 0.48150885 0.011771238 18 0.69
-0.51145273 0.49825609 0.037174705 32 0.71499997
-0.49960327 0.48652884 0.06071448 60 0.69999999
-0.50496453 0.49156439 0.086459592 84 0.70999998
-0.50612426 0.49250755 0.11180134 31 0.71499997
-0.51370215 0.49969307 0.1389854 36 0.73000002
-0.51345474 0.49926409 0.16530152 16 0.73500001
-0.48488134 0.4713026 0.18100812 39 0.69999999
-0.22747351 0.22322564 -0.085592747 1 0.33000001
-0.20163356 0.19794285 -0.065288082 1 0.28999999
-0.23110233 0.22695778 -0.063102089 1 0.33000001
-0.23954411 0.23533688 -0.05324633 1 0.34
nan nan nan nan nan
-0.40489262 0.39808139 -0.049931485 13 0.56999999
-0.49836507 0.49016619 -0.03700484 71 0.69999999
-0.48463613 0.47684285 -0.012195149 69 0.68000001
-0.49104044 0.48460367 0.011771238 19 0.69
-0.50831205 0.50145978 0.037174705 32 0.71499997
-0.49653649 0.48965833 0.06071448 64 0.69999999
-0.49126321 0.48427546 0.084632978 74 0.69499999
-0.50301975 0.49567789 0.11180134 32 0.71499997
-0.51055235 0.50291085 0.1389854 32 0.73000002
-0.50683618 0.49906212 0.16417703 17 0.73000002
-0.4784683 0.47095174 0.1797152 39 0.69499999
-0.22747351 0.22322564 -0.085592747 1 0.33000001
-0.19815712 0.19453004 -0.064162426 1 0.285
-0.22409923 0.22008029 -0.061189905 1 0.31999999
-0.2360214 0.23187605 -0.052463297 1 0.33500001
nan nan nan nan nan
-0.40489262 0.39808139 -0.049931485 30 0.56999999
-0.49836507 0.49016619 -0.03700484 61 0.69999999
-0.4810726 0.47333667 -0.012105479 73 0.67500001
-0.49104044 0.48460367 0.011771238 28 0.69
-0.50831205 0.50145978 0.037174705 38 0.71499997
-0.49653649 0.48965833 0.06071448 68 0.69999999
-0.49126321 0.48427546 0.084632978 77 0.69499999
-0.50301975 0.49567789 0.11180134 26 0.71499997
-0.51055235 0.50291085 0.1389854 32 0.73000002
-0.50683618 0.49906212 0.16417703 17 0.73000002
-0.47502607 0.4675636 0.17842229 44 0.69
-0.21921596 0.21784289 -0.082999028 1 0.31999999
-0.19347602 0.19233668 -0.06303677 1 0.28
-0.22271201 0.22148399 -0.061189905 1 0.31999999
-0.23105894 0.22987153 -0.051680259 1 0.33000001
nan nan nan nan nan
-0.39885375 0.39710334 -0.049493488 64 0.565
-0.49527544 0.49328783 -0.03700484 65 0.69999999
-0.47808906 0.47634998 -0.012105479 60 0.67500001
-0.49152204 0.49121329 0.011856537 26 0.69499999
-0.50515127 0.50464368 0.037174705 41 0.71499997
-0.49697474 0.49628824 0.061148155 72 0.70499998
-0.48821074 0.48735258 0.084632978 78 0.69499999
-0.50339121 0.50231695 0.11258317 26 0.72000003
-0.5039072 0.50264233 0.13803343 32 0.72500002
-0.5071404 0.50567675 0.16530152 23 0.73500001
-0.47549978 0.47394875 0.1797152 51 0.69499999
-0.2157907 0.21443909 -0.081702165 1 0.315
-0.19002108 0.18890209 -0.06191111 1 0.27500001
-0.22271201 0.22148399 -0.061189905 1 0.31999999
-0.23105894 0.22987153 -0.051680259 1 0.33000001
nan nan nan nan nan
-0.39532408 0.39358917 -0.049055494 104 0.56
-0.49527544 0.49328783 -0.03700484 69 0.69999999
-0.47808906 0.47634998 -0.012105479 62 0.67500001
-0.49152204 0.49121329 0.011856537 35 0.69499999
-0.50515127 0.50464368 0.037174705 46 0.71499997
-0.50049937 0.49980801 0.061581831 62 0.70999998
-0.48821074 0.48735258 0.084632978 76 0.69499999
-0.50339121 0.50231695 0.11258317 25 0.72000003
-0.5039072 0.50264233 0.13803343 31 0.72500002
-0.5071404 0.50567675 0.16530152 25 0.73500001
-0.47549978 0.47394875 0.1797152 53 0.69499999
-0.21443909 0.2157907 -0.081702165 1 0.315
-0.18883044 0.1900923 -0.06191111 1 0.27500001
-0.22131599 0.22287895 -0.061189905 1 0.31999999
-0.22613111 0.22781393 -0.050897226 1 0.32499999
nan nan nan nan nan
-0.38933578 0.39252898 -0.048617497 102 0.55500001
-0.49216628 0.49638996 -0.03700484 72 0.69999999
-0.47860584 0.48289517 -0.012195149 68 0.68000001
-0.49193984 0.49784797 0.011941836 33 0.69999999
-0.50548083 0.51135874 0.037434667 44 0.72000003
-0.50435406 0.51002657 0.06244918 64 0.72000003
-0.48862919 0.4939386 0.085241847 79 0.69999999
-0.50369895 0.50898015 0.113365 25 0.72500002
-0.5007391 0.50579852 0.13803343 30 0.72500002
-0.50738144 0.5123148 0.16642602 20 0.74000001
-0.47251251 0.47692701 0.1797152 56 0.69499999
-0.2110353 0.21236546 -0.08040531 1 0.31
-0.18883044 0.1900923 -0.06191111 1 0.27500001
-0.22131599 0.22287895 -0.061189905 1 0.31999999
-0.22613111 0.22781393 -0.050897226 1 0.32499999
nan nan nan nan nan
-0.38933578 0.39252898 -0.048617497 88 0.55500001
-0.49216628 0.49638996 -0.03700484 75 0.69999999
-0.47860584 0.48289517 -0.012195149 69 0.68000001
-0.49193984 0.49784797 0.011941836 36 0.69999999
-0.50548083 0.51135874 0.037434667 47 0.72000003
-0.50785649 0.5135684 0.062882856 67 0.72500002
-0.48862919 0.4939386 0.085241847 81 0.69999999
-0.50369895 0.50898015 0.113365 25 0.72500002
-0.5007391 0.50579852 0.13803343 30 0.72500002
-0.50738144 0.5123148 0.16642602 22 0.74000001
-0.47251251 0.47692701 0.1797152 58 0.69499999
-0.20969681 0.21368723 -0.08040531 1 0.31
-0.18763234 0.19127499 -0.06191111 1 0.27500001
-0.21991125 0.2242651 -0.061189905 1 0.31999999
-0.22469527 0.22923025 -0.050897226 1 0.32499999
nan nan nan nan nan
-0.38686177 0.3949675 -0.048617497 62 0.55500001
-0.49253079 0.50304019 -0.03726916 78 0.70499998
-0.47556227 0.48589277 -0.012195149 69 0.68000001
-0.48880208 0.50092906 0.011941836 38 0.69999999
-0.50225788 0.5145247 0.037434667 44 0.72000003
-0.50461966 0.5167492 0.062882856 69 0.72500002
-0.492452 0.50409895 0.086459592 78 0.70999998
-0.50049096 0.51213491 0.113365 25 0.72500002
-0.49755117 0.50893474 0.13803343 29 0.72500002
-0.50755888 0.51897573 0.16755052 23 0.745
-0.47288433 0.48333889 0.18100812 61 0.69999999
-0.2029324 0.2067941 -0.077811591 1 0.30000001
-0.18422084 0.18779726 -0.060785454 1 0.27000001
-0.21647514 0.22076096 -0.060233813 1 0.315
-0.22469527 0.22923025 -0.050897226 1 0.32499999
nan nan nan nan nan
-0.38686177 0.3949675 -0.048617497 33 0.55500001
-0.49253079 0.50304019 -0.03726916 72 0.70499998
-0.47905907 0.48946553 -0.012284819 70 0.685
-0.48531061 0.49735099 0.011856537 28 0.69499999
-0.50923371 0.52167088 0.037954595 45 0.73000002
-0.50809979 0.52031302 0.063316531 63 0.73000002
-0.492452 0.50409895 0.086459592 72 0.70999998
-0.50049096 0.51213491 0.113365 24 0.72500002
-0.49755117 0.50893474 0.13803343 29 0.72500002
-0.50755888 0.51897573 0.16755052 25 0.745
-0.47288433 0.48333889 0.18100812 73 0.69999999
-0.20162907 0.20806506 -0.077811591 1 0.30000001
-0.18303725 0.18895105 -0.060785454 1 0.27000001
-0.21508379 0.22211675 -0.060233813 1 0.315
-0.22325054 0.23063752 -0.050897226 1 0.32499999
nan nan nan nan nan
-0.3843725 0.3973904 -0.048617497 18 0.55500001
-0.49630168 0.513304 -0.037797801 68 0.71499997
-0.47597423 0.49246585 -0.012284819 70 0.685
-0.48217613 0.50039047 0.011856537 24 0.69499999
-0.50594592 0.52486014 0.037954595 46 0.73000002
-0.50482059 0.5234952 0.063316531 64 0.73000002
-0.48927495 0.50718313 0.086459592 72 0.70999998
-0.50069267 0.51882303 0.11414683 23 0.73000002
-0.49775293 0.51558226 0.1389854 29 0.73000002
-0.50428808 0.52215451 0.16755052 25 0.745
-0.47319409 0.48977411 0.18230103 68 0.70499998
-0.19826859 0.20459731 -0.076514728 1 0.29499999
-0.17964767 0.18545194 -0.059659798 1 0.26499999
-0.21508379 0.22211675 -0.060233813 1 0.315
-0.22325054 0.23063752 -0.050897226 1 0.32499999
nan nan nan nan nan
-0.38783532 0.40097049 -0.049055494 17 0.56
-0.49977231 0.51689351 -0.038062122 70 0.72000003
-0.47597423 0.49246585 -0.012284819 71 0.685
-0.48217613 0.50039047 0.011856537 22 0.69499999
-0.50594592 0.52486014 0.037954595 46 0.73000002
-0.50482059 0.5234952 0.063316531 65 0.73000002
-0.48927495 0.50718313 0.086459592 70 0.70999998
-0.50069267 0.51882303 0.11414683 22 0.73000002
-0.49775293 0.51558226 0.1389854 28 0.73000002
-0.50428808 0.52215451 0.16755052 26 0.745
-0.47319409 0.48977411 0.18230103 67 0.70499998
-0.19697917 0.20583902 -0.076514728 1 0.29499999
-0.1784789 0.18657704 -0.059659798 1 0.26499999
-0.21368395 0.22346377 -0.060233813 1 0.315
-0.221797 0.23203568 -0.050897226 1 0.32499999
nan nan nan nan nan
-0.38874856 0.40700117 -0.049493488 16 0.565
-0.49651474 0.52002347 -0.038062122 58 0.72000003
-0.47977382 0.50267953 -0.01246416 63 0.69499999
-0.48246878 0.5070318 0.011941836 22 0.69999999
-0.50608087 0.53164536 0.038214557 47 0.73500001
-0.50152141 0.52665675 0.063316531 74 0.73000002
-0.48607859 0.51024735 0.086459592 69 0.70999998
-0.49742296 0.52195871 0.11414683 22 0.73000002
-0.49789062 0.52225232 0.13993734 28 0.73500001
-0.50435978 0.52883834 0.16867502 26 0.75
-0.47010744 0.49273759 0.18230103 69 0.70499998
-0.19364053 0.20235023 -0.075217865 1 0.28999999
-0.17511137 0.18305671 -0.058534142 1 0.25999999
-0.21029215 0.21991672 -0.059277721 1 0.31
-0.221797 0.23203568 -0.050897226 1 0.32499999
nan nan nan nan nan
-0.38874856 0.40700117 -0.049493488 14 0.565
-0.49996275 0.52363473 -0.038326442 58 0.72500002
-0.47977382 0.50267953 -0.01246416 63 0.69499999
-0.48591498 0.5106535 0.012027135 26 0.70499998
-0.50608087 0.53164536 0.038214557 47 0.73500001
-0.50152141 0.52665675 0.063316531 75 0.73000002
-0.48607859 0.51024735 0.086459592 67 0.70999998
-0.49742296 0.52195871 0.11414683 21 0.73000002
-0.50127763 0.52580506 0.1408893 27 0.74000001
-0.50435978 0.52883834 0.16867502 26 0.75
-0.47010744 0.49273759 0.18230103 63 0.70499998
-0.19236532 0.2035629 -0.075217865 1 0.28999999
-0.17395775 0.18415335 -0.058534142 1 0.25999999
-0.20890623 0.22123368 -0.059277721 2 0.31
-0.22033472 0.23342469 -0.050897226 1 0.32499999
nan nan nan nan nan
-0.38960117 0.41305903 -0.049931485 14 0.56999999
-0.49666283 0.5267657 -0.038326442 57 0.72500002
-0.48003474 0.50932211 -0.01255383 70 0.69999999
-0.48269689 0.51369649 0.012027135 31 0.70499998
-0.50273049 0.53481466 0.038214557 47 0.73500001
-0.50161481 0.53342623 0.063750207 76 0.73500001
-0.48626348 0.51690608 0.087068461 66 0.71499997
-0.49751809 0.52867019 0.11492866 20 0.73500001
-0.50132865 0.53251821 0.14184125 26 0.745
-0.50436723 0.5355435 0.16979952 27 0.755
-0.47031429 0.4991971 0.18359394 63 0.70999998
-0.18904868 0.2000532 -0.07392101 1 0.285
-0.17395775 0.18415335 -0.058534142 1 0.25999999
-0.20890623 0.22123368 -0.059277721 3 0.31
-0.22033472 0.23342469 -0.050897226 1 0.32499999
nan nan nan nan nan
-0.38960117 0.41305903 -0.049931485 14 0.56999999
-0.49666283 0.5267657 -0.038326442 66 0.72500002
-0.48346359 0.51296014 -0.0126435 70 0.70499998
-0.48612025 0.51733971 0.012112434 28 0.70999998
-0.50615042 0.5384528 0.038474519 47 0.74000001
-0.50161481 0.53342623 0.063750207 70 0.73500001
-0.48626348 0.51690608 0.087068461 64 0.71499997
-0.49751809 0.52867019 0.11492866 18 0.73500001
-0.50132865 0.53251821 0.14184125 30 0.745
-0.50436723 0.5355435 0.16979952 29 0.755
-0.47031429 0.4991971 0.18359394 62 0.70999998
-0.18778798 0.20123707 -0.07392101 1 0.285
-0.17279725 0.18524271 -0.058534142 1 0.25999999
-0.20416509 0.21895251 -0.058321629 4 0.30500001
-0.2154966 0.2311921 -0.050114192 1 0.31999999
nan nan nan nan nan
-0.3903929 0.41914353 -0.050369479 14 0.57499999
-0.49674565 0.53353024 -0.038590763 66 0.73000002
-0.48363692 0.51964718 -0.012733171 66 0.70999998
-0.48286015 0.52038383 0.012112434 28 0.70999998
-0.50275725 0.5416224 0.038474519 47 0.74000001
-0.50164276 0.54021752 0.064183883 70 0.74000001
-0.48638377 0.52358717 0.08767733 62 0.72000003
-0.49418655 0.53178573 0.11492866 18 0.73500001
-0.501315 0.53925264 0.14279321 30 0.75
-0.50762802 0.54583704 0.17204852 29 0.76499999
-0.46716848 0.50214231 0.18359394 62 0.70999998
-0.18778798 0.20123707 -0.07392101 1 0.285
-0.17279725 0.18524271 -0.058534142 1 0.25999999
-0.20416509 0.21895251 -0.058321629 4 0.30500001
-0.2154966 0.2311921 -0.050114192 1 0.31999999
nan nan nan nan nan
-0.39378762 0.42278826 -0.050807476 15 0.57999998
-0.49674565 0.53353024 -0.038590763 66 0.73000002
-0.48363692 0.51964718 -0.012733171 66 0.70999998
-0.48286015 0.52038383 0.012112434 22 0.70999998
-0.5061543 0.54528201 0.038734481 39 0.745
-0.50503224 0.54386765 0.064617552 71 0.745
-0.48976144 0.52722317 0.088286199 60 0.72500002
-0.49754837 0.53540331 0.11571048 18 0.74000001
-0.501315 0.53925264 0.14279321 31 0.75
-0.51094586 0.54940462 0.17317303 31 0.76999998
-0.47045839 0.50567853 0.18488686 61 0.71499997
-0.18651988 0.20241299 -0.07392101 1 0.285
-0.17162994 0.18632478 -0.058534142 1 0.25999999
-0.199461 0.21662065 -0.057365533 5 0.30000001
-0.21403973 0.23254153 -0.050114192 1 0.31999999
nan nan nan nan nan
-0.39449516 0.42892012 -0.05124547 16 0.58499998
-0.49676293 0.54031646 -0.038855083 67 0.73500001
-0.48374519 0.52635652 -0.01282284 65 0.71499997
-0.47958097 0.52340746 0.012112434 20 0.70999998
-0.50271821 0.54845148 0.038734481 38 0.745
-0.50160509 0.54703009 0.064617552 71 0.745
-0.4897939 0.53394717 0.088895068 66 0.73000002
-0.49417451 0.53851891 0.11571048 18 0.74000001
-0.50123632 0.54600775 0.14374517 32 0.755
-0.50748378 0.55260414 0.17317303 32 0.76999998
-0.46727186 0.50862449 0.18488686 53 0.71499997
-0.18651988 0.20241299 -0.07392101 1 0.285
-0.16832936 0.1827416 -0.057408486 1 0.255
-0.19613665 0.2130103 -0.056409441 5 0.29499999
-0.21403973 0.23254153 -0.050114192 1 0.31999999
nan nan nan nan nan
-0.40461043 0.43991807 -0.052559458 16 0.60000002
-0.49676293 0.54031646 -0.038855083 67 0.73500001
-0.48712802 0.53003734 -0.012912511 65 0.72000003
-0.47958097 0.52340746 0.012112434 19 0.70999998
-0.50609213 0.55213237 0.038994446 38 0.75
-0.50497156 0.55070144 0.065051228 72 0.75
-0.4897939 0.53394717 0.088895068 66 0.73000002
-0.49417451 0.53851891 0.11571048 17 0.74000001
